# .PCD v0.7 - Point Cloud Data file format
VERSION 0.7
FIELDS x y z
SIZE 4 4 4
TYPE F F F
COUNT 1 1 1
WIDTH 1534
HEIGHT 1
VIEWPOINT 0 0 0 1 0 0 0
POINTS 1534
DATA ascii
-2.4124904 12.182431 1.9731128
-2.4174213 12.177751 1.7658017
-2.6716027 12.313774 2.0553291
-2.6923285 12.316676 1.8400803
-2.7151971 12.332631 1.6382869
-2.7410321 12.343603 1.4329768
-2.8019824 12.216266 1.7887524
-2.8238873 12.213501 1.5825295
-2.8356771 12.204112 1.3799888
-2.3614078 11.504485 0.95826769
-2.8792419 12.060584 1.5063003
-2.8915405 12.040164 1.3081856
-2.6287251 11.668024 1.0037916
-2.6866827 11.70734 0.84941304
-2.9389448 11.90724 1.2430127
-2.7014461 11.575043 0.96139181
-2.9689398 11.862448 0.87428164
-2.4439943 11.200816 0.57433593
-3.0078411 11.775761 1.0000085
-3.0259695 11.746181 0.82263142
-2.5111523 11.138795 0.5467881
-3.0699873 11.70265 0.47645557
-2.8194747 11.385872 0.7098735
-2.5555239 11.064608 0.51014537
-3.1331925 11.613003 0.43694681
-2.9544401 11.359436 0.52420276
-3.1924028 11.53231 0.39161837
-2.8014641 10.955025 0.050482184
4.8856764 4.7585187 0.87611163
4.9039497 4.5906568 0.84738833
5.1167121 4.8887172 1.3259028
5.069809 4.7872243 1.2820415
5.0165973 4.698513 1.2487091
4.9729419 4.6204095 1.2042344
5.246736 5.1022773 1.7689861
5.1928401 5.0213909 1.7157718
5.1489329 4.9385409 1.6748192
5.1061821 4.8763757 1.6200887
5.3625607 5.3286533 2.2198198
5.3204241 5.2548714 2.1574285
5.2874465 5.1812525 2.108969
5.2602053 5.1229596 2.0495613
5.3859105 5.3965139 2.4823766
-2.6806364 12.315985 2.0326886
-2.8162303 12.211681 2.4691026
-2.8215299 12.214907 2.228873
-2.820631 12.208682 1.9953725
-2.8267689 12.202011 1.7613341
-2.9025264 12.053947 2.1467206
-2.9101205 12.051872 1.9204768
-2.9094763 12.042653 1.700241
-2.916925 12.030252 1.4788293
-2.9772201 11.904 1.8501401
-2.9860449 11.89473 1.6348364
-2.9844084 11.879326 1.4253596
-2.9877787 11.856637 1.2130852
-3.0511422 11.772309 1.5821971
-3.0625477 11.75886 1.3781121
-3.0650978 11.740425 1.1775943
-2.7995696 11.420297 0.88739002
-3.0898623 11.614071 1.3164704
-3.1101718 11.602954 1.1265367
-2.8534422 11.315757 0.85709572
-3.0322924 11.463494 0.72374642
-3.0529952 11.397831 1.0472338
-2.8943028 11.212257 0.82117921
-2.6057339 10.912378 0.59569681
-3.0407805 11.278824 0.51029742
-2.9421663 11.135745 0.7893393
-2.6421828 10.832296 0.56809402
-2.3938789 12.210896 2.4191198
-3.1465287 11.238324 0.49362934
-2.3948965 12.20531 2.1766868
-2.6937194 10.785168 0.54493743
-2.6692796 12.308917 2.2698414
-2.7579198 10.718794 0.13991486
-2.4050159 10.368664 0.13130771
-2.4066799 10.343099 0.21687368
-2.4265032 10.316427 0.11163393
-2.4369769 10.269079 0.088828169
4.7771726 4.2132049 1.7351819
4.7144604 4.090651 1.6886791
4.6535401 3.9834399 1.6283407
4.9595532 4.5683379 2.2503753
4.9019461 4.44348 2.181813
4.8460016 4.3298922 2.1248789
4.7930374 4.2315617 2.057204
4.9295239 4.4840655 2.4957497
4.4113731 3.4825778 0.41625822
4.3221116 3.3410559 0.39623123
4.2558999 3.1846085 0.36596239
4.7280049 4.1173658 1.3451223
4.6562409 3.9752984 1.2937977
4.5928721 3.8386745 1.2600766
4.8424797 4.3450732 1.7946781
-3.3253059 11.152775 1.1071967
-3.0513673 10.915775 0.84833449
-3.3127904 11.026387 1.057502
-3.0791354 10.822763 0.8163386
-3.1115174 10.75194 0.79093248
-2.8940053 11.931421 2.2739949
-2.4407024 10.2029 0.2813977
-2.9961071 11.78063 2.4101489
-2.9824133 11.775539 2.184062
-2.4653573 10.153364 0.27106327
-2.9822011 11.771828 1.9602853
-2.4708347 10.118608 0.15813962
-3.0677109 11.633267 2.3201346
-3.0567279 11.625067 2.0930643
-2.472877 10.09898 0.2562719
-3.0497684 11.621791 1.8828628
-2.4864626 10.070298 0.14954045
-3.0635171 11.625369 1.677577
-3.1192031 11.494621 2.0219846
-2.4885671 10.059534 0.24115795
-3.1175942 11.488286 1.8118147
-2.4976654 10.022376 0.13666673
-3.1196947 11.485641 1.6154511
-3.1531014 11.500556 1.4254647
-3.1646328 11.36198 1.7491353
-2.5072532 9.9853306 0.12153649
-3.1695971 11.35453 1.5514762
-3.1866879 11.356332 1.3671342
-3.2249541 11.367405 1.1844009
-3.2151642 11.245416 1.5035723
-3.2227359 11.232144 1.3132147
-3.2633123 11.245419 1.1420922
-3.0060449 11.002845 0.8736493
-3.3366866 11.190065 1.302819
3.7805743 2.3516097 0.87029195
4.3120098 3.3087339 1.8911035
4.4250579 3.5442958 2.3586302
4.3508754 3.4002981 2.2774107
4.2820282 3.2628498 2.2156503
4.2152638 3.1396241 2.1428273
1.3682294 5.9893017 0.10684166
0.97161949 6.2031507 0.10906672
3.9177313 2.5668707 0.49947095
3.8138523 2.3949499 0.47247851
3.2707162 2.9304147 0.432105
-3.2119188 11.370043 2.2989404
-3.3359122 11.251736 2.4258752
-3.3048968 11.250057 2.2149138
-3.2767086 11.235954 1.9991933
-3.3093767 11.059945 2.2700405
-3.3099046 11.074376 2.0798712
-3.3139811 11.089656 1.9028918
-2.7198653 9.863802 0.33236307
-3.3010392 11.079886 1.7063948
-2.3538914 9.6849966 0.21528342
-3.3740211 10.971138 2.0188279
-3.2275248 9.9484854 0.095361345
-3.363523 10.969269 1.8254315
-2.504364 9.74471 0.30378473
-3.3524075 10.963795 1.64171
-2.4190083 9.6712828 0.20627061
-3.350441 10.952409 1.4561627
-3.2458272 9.9032278 0.087517887
-3.5000191 10.927479 1.8213649
-3.4996338 10.921762 1.6314163
-2.4417896 9.6511545 0.19536863
-3.4995646 10.914393 1.4505875
-3.2764225 9.8650284 0.072961085
-3.5086451 10.901115 1.2679327
-3.5413399 10.826201 1.5849271
-3.5508647 10.816977 1.4028811
-2.5757623 9.6203413 0.088876694
-3.55897 10.805012 1.2286119
-3.5906773 10.732911 1.3666524
-3.6092811 10.718054 1.1908371
-3.6259975 10.700922 1.020048
-3.6445532 10.640807 1.1601661
-2.9322824 10.105131 0.5072186
-3.5790224 10.272957 0.41476935
-2.3454981 9.7204771 0.22202036
-3.3565326 10.169724 0.52384841
0.64816153 5.8436294 0.076497056
2.8183517 1.5919051 0.36659175
2.7155495 1.4040785 0.38061595
0.41175389 6.5545759 0.25175211
0.62427795 5.8667688 0.27558747
3.2645206 1.3181252 0.8753525
3.1647782 1.1136761 0.87254316
3.0620995 0.93053532 0.88665205
2.9460177 0.76347637 0.88083994
3.4302897 1.5958862 1.3620616
3.3285427 1.4189563 1.33884
3.2287869 1.2508035 1.3341649
3.1337991 1.0679326 1.311087
3.314703 1.3448496 1.7406036
0.42950165 6.5449858 0.085920312
-3.5945921 10.754724 2.4466572
-3.5814381 10.778893 2.2646458
-3.6609669 10.631256 2.3431902
-3.6450028 10.655818 2.17045
-3.6321487 10.669085 1.9901767
-3.6253381 10.479073 2.2049565
-3.6896315 10.53459 2.076153
-3.6936526 10.557943 1.9165312
-3.68713 10.56107 1.740007
-3.7313657 10.434052 2.0120316
-3.7175202 10.439383 1.832764
-3.7093544 10.444624 1.6663312
-3.7105641 10.4391 1.4957516
-3.7382269 10.34164 1.7719671
-3.7454243 10.34303 1.6051748
-3.7509694 10.341909 1.4447834
-3.7731695 10.333973 1.2847648
-3.8575411 10.29257 1.5979066
-3.8683076 10.283792 1.4288377
-3.8100352 10.177262 1.3610862
-2.8167157 9.7586203 0.65647507
-2.8312578 9.7083292 0.63893789
-2.8279424 9.6715155 0.52709198
-2.8390465 9.6596079 0.61918002
-2.8488879 9.6292009 0.51417804
-2.8120766 9.5759392 0.40161359
-2.8462605 9.6252871 0.60414135
-2.8541265 9.5865154 0.49878544
-2.8065329 9.5350208 0.39053798
-2.395647 9.3995295 0.26593667
-2.8539977 9.5560312 0.48491949
-2.8179407 9.5005445 0.37839377
-2.4016109 9.3729038 0.25968647
-4.1745038 9.6188269 0.1775701
-2.8074946 9.4742479 0.36553961
-2.421288 9.3503141 0.25105691
-3.8427677 9.5233517 0.16844276
-3.1339364 9.3393536 0.058734462
-2.5298915 9.3539038 0.24626154
-3.7580447 9.4739799 0.15487257
-3.1274824 9.3132391 0.053228654
-3.7102857 9.4461184 0.13865152
2.5148396 0.035972595 2.4914575
-0.094850421 6.8151231 0.1406409
1.0835222 1.172812 0.13557094
0.72022045 2.3006587 0.22570065
0.73838151 1.503839 0.30524516
0.20821935 5.9971914 0.29063016
-0.063240528 6.8391905 0.27520317
0.92624962 2.4243002 0.53341317
0.79836833 2.4358673 0.57466161
2.3067498 -0.48508644 1.0656797
1.7077032 0.93492508 0.96301687
1.1665943 2.3738723 0.86035538
1.0261414 2.4219437 0.87292701
2.4751182 -0.027296066 1.5545689
2.3636417 -0.2577343 1.5895523
2.2450366 -0.46414089 1.6383057
2.1262112 -0.69553757 1.6660583
2.6582794 0.27935314 2.0501659
2.5452518 0.090305328 2.0533614
2.4397659 -0.11537075 2.0790205
2.3290286 -0.31401348 2.0787954
-3.911427 9.4655466 0.99431896
-3.8782969 10.251341 2.4353266
-3.8947659 9.4189758 0.85251766
-4.2191334 9.3902779 0.76466638
-3.9239264 10.067203 2.4777274
-3.9035954 9.425437 0.97138852
-3.9168873 10.118532 2.3276408
-3.9104972 9.3687859 0.83185482
-3.8784232 10.142747 2.1463082
-4.3046417 9.3459234 0.7592721
-4.0052123 9.968996 2.4268184
-3.1426706 9.1882057 0.47106653
-3.9957328 10.009065 2.2599618
-3.9085283 9.3402786 0.81280333
-3.9108958 10.021952 2.0598879
-4.2905402 9.2977753 0.73531663
-3.9098716 10.043525 1.9015386
-3.0659275 9.1553631 0.45167267
-3.9487944 9.8870773 2.1476116
-3.1004386 9.0911179 0.35704985
-3.9942331 9.9260635 2.0133851
-4.2184153 9.2699862 0.70362657
-4.0147381 9.9553595 1.8715839
-3.0828843 9.1312647 0.44032431
-4.0251136 9.9654961 1.7137104
-3.103405 9.0693674 0.3484866
-4.0815835 9.8504734 1.9929183
-3.1407785 8.9928064 0.25491905
-4.0793734 9.8610821 1.8263621
-3.0822849 9.1225309 0.42658049
-4.073524 9.8699541 1.6674051
-3.115788 9.0519791 0.33687571
-3.1428971 8.978075 0.24623758
-4.057704 9.7706099 1.7630546
-3.1850219 8.8885899 0.154754
-3.1194587 9.0474405 0.32166082
-3.1532655 8.9659853 0.23368773
-3.1879478 8.8805027 0.14560817
-3.2342272 8.7757359 0.05590985
-3.1463304 8.9673948 0.21620108
-3.1925755 8.8734007 0.13197519
-4.1436758 9.6360149 1.1153091
-3.1907616 8.8794975 0.1107741
-3.8879523 9.5231113 1.0175749
-3.8881006 9.4755459 0.87346077
-0.68768406 4.0617604 0.060632728
-0.76979291 4.0891376 0.16909607
-0.38375074 2.6568036 0.12593821
-0.48898113 2.691792 0.25865847
-0.60400158 3.3583407 0.35384682
-0.13937733 3.6423144 0.27128834
-0.16432142 2.6295013 0.39150405
-0.27272147 2.5544362 0.50569022
-0.3964383 2.6627035 0.59243929
0.14031845 2.8152466 0.57621706
0.091972768 2.1546087 0.70126981
-0.019334376 1.9988775 0.80995703
0.26362139 -4.2436895 1.5141451
1.1560725 -2.5376816 1.4862473
0.99664187 -2.9742889 1.6356579
0.81567335 -3.3334703 1.8040185
0.61650968 -3.6793337 1.9380764
0.76313531 1.4856358 1.4148716
1.2639383 -2.4288578 2.10795
1.1002938 -2.7692251 2.2395554
0.92682528 -3.1230173 2.3402843
1.627498 -1.6096411 2.4876313
-4.2452073 9.4972916 2.4086566
-4.2324066 9.5457983 2.245986
-4.1256499 9.5589609 2.0278883
-4.31423 9.404644 2.385448
-4.2139144 9.4300356 2.1617854
-4.2210674 9.4622021 2.0111063
-4.236692 9.4771338 1.8589534
-4.3205667 9.3544168 2.1699595
-4.3374496 9.3737965 2.0103474
-4.2831316 9.296174 1.944584
-4.3873649 9.2027903 1.4758787
-4.3636837 9.1622438 1.3144468
-4.3623114 9.1379938 1.4378468
-4.4571166 9.1030293 1.3167592
-4.4663768 9.0450039 1.1670858
-4.4664116 9.1047106 1.4485722
-4.4649014 9.0497065 1.2932529
-4.449039 8.9944563 1.1417993
-4.5165792 8.9175711 1.0109559
-4.4471617 9.0252562 1.2637519
-4.4786286 8.9528723 1.1260207
-4.1214476 9.6034832 2.4224756
-4.5778036 8.8781271 1.0054096
-4.1793981 9.6603508 2.3000538
-4.614819 8.7798157 0.87031424
-4.4957623 8.9404821 1.1057055
-4.5925431 8.8457785 0.98500329
-4.6169138 8.7528324 0.8529774
-3.7628069 8.7214079 0.60302699
-4.5964017 8.8438072 0.95927453
-4.6054955 8.7348957 0.8264125
-3.7554221 8.7112579 0.58728456
-3.2258387 8.6782465 0.43724871
-4.6156678 8.7423296 0.79756916
-3.7600117 8.7040634 0.56781602
-3.2191877 8.6778984 0.42305189
-3.2723212 8.5719128 0.35298997
-3.2769852 8.7650604 0.483307
-3.2309499 8.6777086 0.40427899
-3.272707 8.5786381 0.33588505
-3.3264074 8.4569912 0.2710582
-3.2219324 8.6963577 0.37553847
-3.2695122 8.5862494 0.31226921
-3.3222637 8.4717884 0.24955603
-3.4028649 8.32728 0.19078103
-3.2577739 8.610899 0.2784695
-3.3145394 8.4874725 0.2215431
-3.3747129 8.3556166 0.16405161
-3.479393 8.1868992 0.1108537
-3.3042941 8.5163364 0.181659
-3.359818 8.3793211 0.13062966
-3.4760661 8.2171183 0.076563127
-3.3467698 8.4127245 0.083996356
-1.9185534 1.0322394 0.098330103
-2.0657921 1.1095304 0.32491997
-1.1759024 3.8971767 0.14142787
-1.414263 2.807838 0.29751527
-1.8174629 0.98483849 0.52870387
-0.88344532 4.135818 0.20886976
-0.97938788 4.1745481 0.31035927
-1.0823854 4.1373439 0.42097038
-1.3282249 2.9326711 0.60484308
-0.72323006 4.0682526 0.40515381
-0.82390243 4.1102509 0.48820579
-1.595698 -6.6034622 1.4591801
-1.9245647 -6.4340572 1.6973184
-0.80547959 3.2056742 0.85065353
-1.4605637 -6.6581059 2.1843648
-0.065781713 -4.9802828 2.0005796
-0.33901188 -6.0003204 2.2796175
-0.63449836 2.9591799 1.0939162
-4.4733987 9.0709524 2.3228555
-4.4781137 9.0932999 2.1512699
-4.4264054 9.0095243 2.2687654
-4.5735526 8.8910007 1.6435443
-4.597403 8.839386 1.6313785
-4.639442 8.77777 1.4950829
-4.6265626 8.7983789 1.6186596
-4.6294136 8.7416811 1.471725
-4.5265779 8.6728029 1.3007926
-4.6285715 8.7908773 1.5901197
-4.6080441 8.7167635 1.4398488
-4.6066098 8.6424675 1.30301
-4.6603069 8.5408525 1.1877147
-4.6044097 8.7215967 1.4056512
-4.6168756 8.6272049 1.2790056
-4.6495376 8.5312634 1.161005
-4.3862247 9.266366 2.3631716
-4.4579759 8.4454384 1.003096
-4.6067104 8.6437817 1.2355636
-4.6469874 8.5288439 1.1282923
-4.3646502 9.1607504 2.3022766
-4.5289621 8.4371357 0.99025321
-4.3821058 9.180932 2.1390512
-4.8353095 8.2529936 0.94710225
-4.4432178 9.0441113 2.4886119
-4.6445537 8.5546865 1.0800163
-4.7392383 8.4132919 0.99456006
-4.0151258 8.4147568 0.76741648
-4.0027833 8.2922306 0.69113439
-4.7423282 8.4477854 0.93735784
-3.9580493 8.4391184 0.71951443
-3.9921379 8.3155241 0.6525591
-4.0122986 8.4641399 0.67157811
-3.3982506 8.4576492 0.53117371
-3.3778462 8.3554993 0.48084897
-3.4785113 8.2041121 0.45303655
-3.3093109 8.5072651 0.46830702
-3.352829 8.3843317 0.43404162
-3.4760303 8.2361059 0.40654737
-3.4896021 8.094451 0.38220727
-3.3435493 8.4206877 0.37345165
-3.4702792 8.2655907 0.35291016
-3.4820375 8.1335278 0.32688868
-3.4985461 7.9797559 0.3152613
-3.4216533 8.316081 0.27965477
-3.4778719 8.1670704 0.26495072
-3.4944077 8.0238047 0.25074759
-3.7154937 7.7772722 0.25735885
-3.4750681 8.2061672 0.18335813
-3.491334 8.058876 0.17797083
-3.5109921 7.9047818 0.17593348
-3.486702 8.09832 0.087293625
-3.5013337 7.9456129 0.094355911
-2.5224843 3.4302096 0.12221374
-2.3580184 3.2668419 0.22577539
-2.5402422 0.89889336 0.19745833
-2.1564822 3.2215199 0.33911872
-1.8189819 0.98233986 0.053690203
-2.0048041 1.0780544 0.22078529
-2.1904559 1.1846609 0.39707792
-2.678689 0.016036987 0.61869574
-1.217557 3.8131952 0.27798772
-1.4921284 2.7851548 0.40380365
-1.8695507 1.4873042 0.59103906
-3.3120298 -4.889658 1.1736791
-1.0176587 4.1896286 0.44492155
-1.270153 2.9495511 0.5935815
-2.6253667 -6.1043873 1.438037
-2.8785138 -5.1438389 1.5355
-1.4227839 -6.6407089 1.6331204
-1.7922488 -6.4956627 1.7684909
-2.1623111 -6.2889643 1.9150199
-2.5332885 -6.1175156 2.0233583
-0.98073602 -6.7441568 2.2607756
-1.3455508 -6.7220507 2.3512032
-1.7124816 -6.5404615 2.4379601
-2.0689039 -6.3585234 2.4829268
-4.0068479 8.4369745 0.77457672
-4.0297427 8.3115492 0.73102659
-4.7569647 7.9959602 0.8136583
-4.024642 8.47225 0.68880463
-3.9672117 8.3533545 0.64703834
-4.6170793 8.8111124 1.7430594
-3.70367 8.1574726 0.56995386
-3.3013525 8.5153913 0.47526902
-3.3507624 8.397007 0.4669382
-4.6278181 8.7878742 1.7241564
-3.4728246 8.2537813 0.46592015
-4.6273036 8.7109489 1.5830516
-3.4791012 8.1256561 0.46986204
-3.3369565 8.430234 0.37677312
-4.6266594 8.7748175 1.6922992
-3.4496155 8.2872553 0.38250095
-4.599175 8.7026339 1.5442584
-3.4766102 8.159749 0.38372576
-4.5217533 8.6175652 1.3967505
-3.4857855 8.0256472 0.40215456
-4.6278615 8.7920084 1.6448376
-3.4112072 8.3254166 0.27920628
-4.6058269 8.7003069 1.509259
-3.478478 8.1857433 0.29254827
-4.6391277 8.6068506 1.3973653
-3.4914503 8.0563107 0.3067593
-4.66292 8.4941616 1.295453
-3.5118542 7.9128284 0.33984813
-4.6169024 8.7242956 1.4554476
-3.4724903 8.212595 0.18030989
-4.608387 8.6177759 1.3426652
-3.4872918 8.0828133 0.20360552
-4.6727972 8.504652 1.2533617
-4.3584528 9.1548719 2.3816235
-3.5040121 7.9478993 0.23005974
-4.5871053 8.3934774 1.1406391
-4.5979052 8.6507063 1.2715224
-3.4882116 8.1030531 0.079595454
-4.6592822 8.5231647 1.194824
-4.4629407 9.0824718 2.4190085
-3.5047717 7.968565 0.11633509
-4.7021556 8.3968906 1.1149653
-4.4715018 9.0804873 2.2345953
-4.5550408 7.4074287 0.14891656
-4.5028558 8.2950926 0.99784857
-4.6462193 8.5632973 1.1122594
-4.4335995 9.0180178 2.3802843
-4.4146399 8.4631472 0.98640519
-4.4491615 9.0188484 2.2031553
-4.791172 8.2716665 0.99173433
-4.9310865 8.0862484 0.96007079
-4.4419346 8.9869785 2.3640974
-4.7220926 8.4613714 0.95888728
-1.4173614 2.8069196 0.30920136
-1.8395505 1.2655926 0.40405869
-2.1015868 1.1129518 0.45529443
-0.95447254 4.1632662 0.421058
-1.0820582 4.1443915 0.43889779
-1.3775585 2.7925377 0.54056478
-2.7425451 -5.2239695 1.0423878
-1.5803957 -6.6071472 1.5506909
-1.961604 -6.4149294 1.5560709
-2.3343005 -6.2185154 1.5221585
-0.67545235 3.0846167 0.92761433
-1.1094329 -6.8618374 2.1429548
-0.94492483 3.0942049 0.89982128
-1.8128473 -6.5046282 2.0085723
-0.63368666 2.9678969 1.153458
-3.1262245 -0.38658047 0.080925487
-1.4645754 2.8032436 0.05029238
-1.9313127 1.0270905 0.098100692
-2.1476321 1.1513772 0.19141716
-2.7859168 -0.56116676 0.2883679
-1.1266865 4.015089 0.24843907
-4.3122559 9.3977804 2.4917214
-4.3171983 9.346384 2.4755449
-4.3073473 9.3254099 2.2670355
-4.2731042 9.3015299 2.4288828
-4.2710047 9.2840319 2.2276428
-4.3927479 9.2548666 2.105046
-4.2722154 9.2883368 2.4042404
-4.3746738 9.260952 2.2626987
-4.4063902 9.2269268 2.0906718
-4.3849869 9.259201 2.2359111
-4.4079542 9.2078705 2.06388
-3.2511063 8.6212959 0.41304648
-4.4374089 9.0010653 1.5792174
-3.2945156 8.5189056 0.40775818
-3.3426323 8.4084692 0.41629386
-3.24683 8.6374559 0.31470305
-4.4356937 9.0020475 1.5382259
-3.2951975 8.5326719 0.31834194
-4.5593691 8.9050941 1.4575547
-3.3411336 8.4246101 0.32256472
-3.4431124 8.2957211 0.34564012
-4.4363184 9.0077429 1.4889091
-3.290071 8.5449886 0.20857492
-4.5496922 8.9133406 1.405346
-3.3406305 8.4349327 0.22257796
-4.608438 8.8036804 1.3168912
-3.4199066 8.3149824 0.23724711
-4.4618859 9.0331926 1.4248741
-3.4753385 8.1922884 0.27080861
-4.5105104 8.9273796 1.3329899
-3.3361287 8.4417353 0.1015767
-4.599906 8.8194418 1.2534033
-3.4060817 8.3234911 0.12468185
-4.5711656 8.7030458 1.1584103
-3.4753942 8.2015247 0.15162578
-4.470408 8.9570293 1.2365421
-3.4838157 8.0901136 0.1966224
-4.5947728 8.8371849 1.1809421
-4.5874391 8.722331 1.0912768
-4.4113665 8.6140871 0.98507833
-3.4849854 8.0917397 0.065035909
-4.5799093 8.8697939 1.0777678
-3.5004177 7.980248 0.12336852
-4.6143022 8.7414665 1.0143018
-4.6427436 8.6138353 0.9505192
-4.7012367 8.4692717 0.90997922
-4.6137533 8.7742376 0.90142876
-4.6178722 8.6397161 0.85009158
-4.71557 8.4961338 0.81391853
-4.0086761 8.4648771 0.67792046
-3.5524759 8.7626925 0.57851309
-3.5561371 8.6596003 0.55445087
-3.2802796 8.6022549 0.49659163
-3.3280144 8.4950199 0.49410176
-3.2129908 8.7192688 0.42117906
-0.69119984 4.0596676 0.26307034
-0.80909169 4.1067443 0.235661
-0.92549121 4.1537695 0.1983135
-0.35920042 2.6418695 0.58328271
-0.48968768 2.6633997 0.52825576
-0.62900329 4.0354633 0.41292375
-0.73414671 4.0692282 0.36214268
0.32492435 -4.1186609 1.5633975
0.12003058 -4.6047707 1.4685583
-0.12647432 -4.9884825 1.3666322
-0.52909476 3.3601093 0.58965582
0.65229023 -3.6232185 2.060586
0.48478436 -3.8633184 1.934155
0.29598051 -4.1606483 1.8183076
0.12435824 -4.5645132 1.6835637
0.80914998 -3.3251238 2.3995738
0.67157722 -3.5705481 2.274447
0.5469631 -3.7642221 2.1152763
-0.74639457 4.0855556 0.10249717
-0.86795235 4.1256924 0.08564347
-0.99283314 4.1818309 0.073137559
-0.56395531 2.6727262 0.32668102
-4.0769496 9.8509283 2.4881909
-4.0915289 9.8174324 2.4756265
-4.0679474 9.7720776 2.2391317
-4.0901003 9.7882166 2.4512546
-4.0434427 9.7399683 2.200026
-4.1408892 9.707613 2.0541704
-4.0727401 9.7797709 2.4120579
-4.0616698 9.7249699 2.1849048
-4.1620378 9.6937952 2.0372968
-4.19168 9.6334257 1.8662474
-4.0614977 9.7273645 2.1497118
-4.1711392 9.6843357 2.0101335
-4.1838722 9.621768 1.8299615
-4.1674576 9.6919746 1.9640698
-4.195477 9.6199436 1.7978544
-4.1943178 9.6335897 1.7429284
-4.295435 9.3870077 1.286374
-4.2381325 9.2795095 1.1548853
-4.2520094 9.39217 1.2105359
-3.9334598 9.2666073 1.0166087
-4.3520684 9.1879148 1.0232689
-3.9396915 9.3782053 1.0440593
-3.9268279 9.2771263 0.95044631
-4.1986308 9.1932507 0.91948968
-4.4407263 9.0870628 0.88616741
-3.9153218 9.295661 0.86102462
-3.9324541 9.1913195 0.79009742
-4.2880564 9.0989456 0.7760998
-3.3557978 8.9876175 0.57604343
-4.3460145 9.2354879 0.75822788
-3.2853284 9.0835619 0.5455544
-3.1341519 8.9994583 0.47994089
-3.1710219 8.9146023 0.45333958
-3.0961618 9.0900831 0.44008058
-3.1324072 9.007391 0.41104579
-3.1676674 8.9242735 0.38065201
-3.2126231 8.8349819 0.36282364
-3.1385245 9.0165539 0.32355791
-3.1685481 8.9305344 0.30302119
-3.2065129 8.8430424 0.2816034
-3.2445769 8.7512226 0.27397904
-3.1638618 8.9351044 0.20641264
-3.2077675 8.8456488 0.19528332
-3.2458773 8.7551928 0.18351978
-3.2276325 8.6684885 0.18421277
-3.201385 8.8458776 0.089494839
-3.2505817 8.7536297 0.086442307
-3.2363977 8.6668377 0.086426228
-3.2742066 8.5727158 0.097367302
0.69288158 1.4534545 0.51206619
1.0819474 -1.7066917 0.48831165
0.25684166 2.8997059 0.25073883
0.80095792 2.55159 0.87572241
0.74791908 2.4648142 0.77548617
0.6914438 2.3333101 0.67648971
0.76662922 1.5302143 0.60181838
1.9133488 -1.0353355 1.770594
1.0066559 2.3232408 1.1178164
0.87165976 2.624846 0.96362215
0.8595885 2.4544191 0.86193651
2.1128707 -0.66657448 2.2225955
2.0844531 -0.74355316 2.0576787
2.0396085 -0.80745506 1.8907318
2.0132518 -0.87633991 1.7129997
2.2655816 -0.40128422 2.3347149
2.2584682 -0.40601063 2.1544831
0.31750619 2.8946671 0.25968546
0.21620858 2.8850818 0.17383057
0.1078462 2.8705387 0.089560598
0.78202403 1.5391626 0.62434345
-3.7655582 10.377707 2.4625547
-3.7428374 10.338796 2.4132605
-3.8101764 10.301659 2.2179568
-3.742187 10.316118 2.3826053
-3.8543997 10.298249 2.2134764
-3.8873429 10.236429 2.0103819
-3.742033 10.31561 2.3534617
-3.8615942 10.286399 2.1855104
-3.8724999 10.215957 1.9672514
-3.8362904 10.121829 1.7486335
-3.8627791 10.291801 2.1506
-3.84725 10.199568 1.9180168
-4.1515365 9.5106077 0.36303365
-3.8737788 10.127234 1.7302341
-3.3776736 9.3035564 0.26633841
-3.9153728 10.052021 1.5684853
-3.1359897 9.1894865 0.21904939
-3.8753047 10.220049 1.8912745
-3.7498102 9.4614744 0.23993541
-3.8736148 10.124996 1.6913437
-3.3915105 9.3101931 0.18656704
-3.91399 10.049591 1.526861
-3.1427436 9.1951952 0.14396521
-3.0902872 9.10429 0.1156107
-3.8369627 10.125716 1.6249973
-3.2016659 9.2935743 0.093948722
-3.9219465 10.05469 1.4841987
-3.1591153 9.1974306 0.063738629
-3.9245596 10.071622 1.4291896
-2.9041004 9.528594 0.74488336
-2.8707361 9.5260315 0.69778264
-2.8518491 9.4487886 0.61874825
-2.8595982 9.5300341 0.65164447
-2.8377357 9.4531393 0.57244992
-2.5352502 9.3279686 0.46308595
-2.8528204 9.5409622 0.59575915
-2.8251438 9.4571819 0.52220273
-2.5423856 9.3355618 0.42244238
-3.9625821 9.4640617 0.52278465
-2.8078809 9.4647427 0.4602592
-2.5469022 9.3414745 0.37686798
-4.2298388 9.5118055 0.46351403
-3.3636065 9.2955055 0.33952761
-2.5637207 9.3528423 0.32066816
2.3899126 -0.27321434 0.15819269
2.2571044 1.0674686 0.59150076
2.5594149 0.024718285 0.46405923
2.499341 -0.058225632 0.28623396
2.4573545 -0.17108917 0.086033091
2.7929273 0.47877216 1.104156
2.4892097 0.97522354 0.71359831
2.3394408 1.2440352 0.52072626
2.9377508 0.86685753 1.5462492
2.9590859 0.76473618 1.3851873
2.9327025 0.74584961 1.2109247
2.9201994 0.72577667 1.0235515
3.0865879 1.1792107 1.9858789
3.1012549 1.1571517 1.818072
3.0946321 1.1547246 1.6470684
3.1191378 1.1179914 1.4740765
3.3288178 1.4272285 1.9312154
-3.421001 10.912575 2.4756846
-3.5209684 10.88238 2.2840691
-2.7806211 9.732996 0.4545716
-3.4832921 10.928114 2.4764602
-2.7533007 9.8146334 0.48402834
-3.5337753 10.863873 2.2438424
-2.7782173 9.7391653 0.40731508
-3.5700393 10.784284 2.0233994
-2.8128195 9.665041 0.34081829
-3.4881897 10.930824 2.441916
-2.7381606 9.8229637 0.42839843
-3.5381198 10.848835 2.1998284
-2.7858777 9.7505322 0.35922915
-3.5751348 10.769906 1.9793705
-2.3676047 9.5362949 0.26601127
-3.6124268 10.685059 1.7782236
-2.3918777 9.4743261 0.21788684
-3.5368814 10.853838 2.1594465
-2.3638608 9.6149149 0.275666
-3.5809312 10.762339 1.9371079
-2.3653345 9.5423956 0.22235626
-3.6161537 10.676804 1.7354697
-3.3629313 9.7431402 0.17101024
-3.6630144 10.592205 1.5567374
-3.4279304 9.6496086 0.10331136
-3.5746431 10.769894 1.8900203
-2.5213208 9.6016436 0.17024972
-3.6210184 10.674791 1.691402
-3.3513446 9.75002 0.096348479
-3.6661448 10.589105 1.511326
-3.6306882 10.459898 1.3164771
-3.61447 10.6871 1.6408041
-3.6652889 10.590446 1.4622579
-3.6330423 10.460657 1.2689457
-3.6544151 10.602977 1.4051615
-3.6281738 10.463449 1.2164438
-3.630446 10.485283 1.1601468
0.93847227 6.1783366 0.27954236
0.92868352 6.1762686 0.21280423
0.92407155 6.1589041 0.14652885
3.5987291 1.9845872 0.89561349
3.5980735 1.9738379 0.72495669
3.5841713 1.9722257 0.55287278
3.7397046 2.2668886 1.3384653
3.7495747 2.2756753 1.1685539
3.7557983 2.2757993 0.99945945
3.760529 2.2980509 0.81350821
3.9326262 2.6020942 1.2573411
-1.8447759 0.98690176 0.063017763
-2.0524039 1.0972271 0.10042542
-1.2118906 3.8206978 0.21073169
-1.3472859 2.7850723 0.23228797
-1.498595 2.7633948 0.25259793
-1.7887528 0.968297 0.28416961
-1.0851666 4.1293612 0.36307141
-1.1821632 3.8828912 0.3702881
-1.3065785 2.8656564 0.41644752
-1.448161 2.8198113 0.40780336
-0.96688002 4.1729698 0.51733005
-1.0580323 4.1627188 0.50465405
-1.1307715 3.0646839 0.57711387
-1.2509859 2.7502804 0.57458812
-0.46335089 -6.0886307 1.767519
-0.73843658 -6.6942873 1.7205564
-0.58878076 2.8667583 1.0675583
0.10597301 -4.6964045 2.1942902
-0.10809636 -5.0368719 2.1424084
-0.89471012 3.1078806 0.89040017
-0.63617605 2.9785476 1.1675456
-0.70408374 2.9353185 1.1116321
-4.9617596 7.932909 1.2834002
-4.6006899 7.2064404 0.059606895
-4.7801332 8.3669157 2.4262502
-5.0069027 7.8310428 1.1906801
-4.9785271 6.9518347 0.072934531
-5.0444279 7.7161975 1.1119072
-5.0968199 6.7626324 0.12058407
-4.9074163 8.3229198 2.4905455
-4.9803143 7.8504243 1.115692
-4.9156532 8.3054657 2.2874374
-4.8260841 7.7642322 0.99254572
-5.1607447 7.5972424 0.99370098
-4.9051952 8.2838459 2.4711905
-4.9616222 7.8822751 1.0178314
-4.8493218 8.2680731 2.2314756
-5.1395941 7.7439137 0.98198438
-4.8327875 8.2354212 2.0351827
-5.1150894 7.6285243 0.90309745
-4.8561478 8.271781 2.416117
-3.9816473 7.7127247 0.65404588
-4.8219457 8.2406616 2.1945362
-5.0501213 7.7864785 0.85486025
-4.8695602 8.2095919 2.0333207
-4.3527017 7.7647371 0.68686962
-4.0028687 7.7267799 0.58981866
-4.8315954 8.2390471 2.1684856
-3.9711852 7.636754 0.55900693
-4.927824 8.1918335 2.0361509
-3.5100453 7.9082494 0.48026681
-4.057375 7.7330079 0.52214795
-3.9582877 7.657836 0.48210919
-4.9274654 8.1983757 1.995878
-3.9509811 7.5605092 0.46771288
-3.9998217 7.7633057 0.41868079
-3.9525349 7.674284 0.39942473
-3.9735761 7.5724487 0.38527465
-4.0750842 7.4417977 0.3914156
-3.9784012 7.6848974 0.29789364
-3.9301903 7.5956326 0.29117113
-4.9973173 7.9088311 1.4005928
-4.8283529 7.2532787 0.32127526
-4.8918734 7.0951195 0.33900261
-5.0339489 8.001442 1.487429
-3.9288187 7.6074519 0.1797573
-4.9675508 7.9193625 1.3425919
-4.1528549 7.4465427 0.18652168
-4.9986038 7.8179259 1.2471671
-4.6575403 7.1842322 0.19708061
-3.7033219 8.0983067 0.98321736
-4.9814963 6.9402046 0.23097792
-4.2297831 7.4317975 0.053075604
-0.83122325 4.1117272 0.096137799
-0.92855996 4.148098 0.067074411
-0.68626142 4.0510249 0.26628047
-0.7769959 4.0927067 0.22550356
-0.87186742 4.1322675 0.18945858
-0.96169871 4.1600618 0.1445168
-0.30481571 2.5512142 0.53675359
-0.62796098 4.0441484 0.3966186
-0.7122404 4.0693202 0.3498604
-0.7908659 4.0935917 0.29580665
0.95999765 -3.0207424 1.383242
0.83206916 -3.2640276 1.2537153
-0.43703324 3.3019347 0.58139622
-0.62011993 4.0305576 0.46170181
1.172307 -2.5378551 1.8326503
1.0857973 -2.7441368 1.6992415
0.97954726 -2.9667587 1.5687261
0.887007 -3.1797638 1.4139297
1.3597741 -2.1167173 2.2710936
1.3226383 -2.3570375 2.1461537
1.2280576 -2.422472 1.990613
1.1593485 -2.5068874 1.8259368
1.4452145 -1.9302387 2.4061418
1.416755 -1.9991798 2.2447038
-4.5960984 8.8378191 2.3834801
-4.6160097 8.8093605 2.373625
-4.6332073 8.7731524 2.1673875
-4.6264668 8.7867756 2.3577616
-4.6481895 8.7528725 2.1519816
-4.6698747 8.7042904 1.9658623
-4.6276102 8.7848196 2.3301206
-4.6509271 8.7370853 2.1264744
-3.4858842 8.1685371 0.45145345
-4.6742115 8.6896925 1.9403384
-3.4900594 8.0971498 0.40905762
-4.6197853 8.6207008 1.7355354
-3.4973767 8.0217304 0.37774634
-4.6488438 8.740983 2.0903313
-3.4800549 8.1802406 0.38023949
-4.6554623 8.6790667 1.8995764
-3.4925039 8.1046133 0.34730774
-4.6661348 8.6186514 1.7245477
-3.4961357 8.0307531 0.3139998
-3.5029094 7.9528599 0.29177654
-4.6641555 8.6902103 1.8602179
-3.4906538 8.1125517 0.26881456
-4.5945253 8.6081467 1.6552403
-3.5004208 8.0356379 0.24483605
-3.5043101 7.9599028 0.22060686
-3.5471685 7.8756409 0.20794073
-4.3709788 8.5959635 1.5104796
-3.4971929 8.0403004 0.15931693
-3.5064013 7.9626088 0.14477701
-3.5643733 7.8764329 0.12776212
-4.2737103 7.6636891 0.10379852
-3.5012896 7.9629869 0.051377334
-4.5773129 8.2924433 1.0309888
-4.7587881 8.3066473 1.0156685
-4.9001837 8.2032948 0.94845927
-4.6619873 8.4195805 1.0241135
-4.8453627 8.3219929 0.96505469
-4.8061514 8.2174587 0.85866708
-3.7083416 8.1436987 0.59470022
-4.0061522 8.3166761 0.71196038
-4.0238409 8.2302275 0.64888865
-3.7071023 8.1545191 0.53936553
-3.4916258 8.0875463 0.46611375
-3.5393188 8.2414474 0.50226772
2.2101533 -0.49808598 1.6054518
2.2032924 -0.62488079 1.4547297
1.5283058 1.0269074 1.0710595
2.3894665 -0.17854309 2.2139311
2.3910551 -0.20399952 2.0517642
2.3644454 -0.2038002 1.8836294
2.3647649 -0.21770382 1.7141182
2.5474985 0.093173027 2.3301568
2.5512776 0.14228058 2.1551359
0.1301012 3.0090995 0.052414604
0.84909058 1.2410312 0.34639144
0.077237844 3.5990787 0.21523398
0.20017171 2.8835607 0.13183036
1.1026056 1.2099109 0.70284647
1.0571685 1.1054721 0.58252245
0.99752522 1.0103922 0.46031308
0.84789324 1.2389345 0.31654653
2.0983098 -0.85082531 1.3370594
1.3117251 1.1260557 0.95122129
1.2246828 1.1795025 0.81329149
1.1622663 1.1989989 0.67026412
2.2373762 -0.46086121 1.7720112
-4.3300004 9.3581343 2.313205
-4.2926159 9.3203726 2.2545972
-4.2880192 9.2561588 2.0286756
-4.3160028 9.3797302 2.4961693
-4.2703133 9.2960377 2.2086859
-4.3672433 9.2656364 2.043148
-4.3797398 9.1990118 1.8438916
-4.260726 9.2949524 2.1734896
-4.3656607 9.2555256 2.0091672
-4.3729692 9.1857424 1.8050007
-4.3743687 9.1091213 1.6194172
-4.3638439 9.2624016 1.9728603
-4.3659139 9.1795387 1.7661437
-4.3789549 9.1057749 1.5843446
-4.4716802 9.0464468 1.4530518
-4.3764076 9.1949835 1.7288327
-4.3762393 9.1054192 1.5430467
-4.4777517 9.0477133 1.4128312
-4.3694925 9.1186724 1.4927752
-4.4767475 9.0516901 1.3677527
-4.475296 9.0694389 1.3102179
-4.6240196 8.7958784 0.93209302
-4.6168494 8.8044977 0.86997378
-3.355396 8.5195551 0.54359645
-4.6037154 8.8143206 0.80177325
-3.3058729 8.5198994 0.49407744
-3.3353155 8.4545412 0.43779677
-3.7665613 8.6816683 0.58654308
-3.2939293 8.5251369 0.44813794
-3.3298101 8.461174 0.39108169
-3.3553336 8.3927994 0.34067845
-3.2855084 8.5355206 0.39170495
-3.320704 8.4675426 0.33978781
-3.356926 8.3998823 0.28922907
-3.3937151 8.3282442 0.24653518
-3.3089921 8.4755564 0.27756217
-3.3610759 8.4068079 0.23293845
-3.3859136 8.3344173 0.18767455
-3.4768484 8.2605515 0.14948593
-3.3509092 8.4126501 0.16416323
-3.3899918 8.3396702 0.12520352
-3.471688 8.2647429 0.08320269
-3.4821796 8.185051 0.05270049
2.7041333 0.29769087 0.39487624
2.676456 0.22784567 0.22318034
2.6276548 0.17314911 0.050375983
2.6067457 1.0846148 0.81070918
2.6679852 0.90352917 0.66011626
2.4012122 1.3189044 0.4782812
2.3772094 1.2991428 0.30941683
3.0170174 0.88125563 1.3017175
3.010901 0.86870861 1.1314328
2.9992142 0.84873295 0.9630934
2.9994402 0.8294692 0.7822414
3.1295872 1.1825337 1.7366868
3.1297131 1.2034187 1.5669738
3.1565228 1.1616106 1.4085493
3.1633544 1.1763163 1.2313639
-4.1196852 9.6974602 1.7350696
-4.165442 9.6216946 1.5584494
-4.2046957 9.5381107 1.393729
-4.1052408 9.7026176 1.6836751
-4.1708388 9.6237926 1.5141236
-4.211709 9.53971 1.3490342
-4.2167482 9.4367752 1.185258
-4.1809826 9.6446199 1.4706606
-4.2055888 9.5403929 1.2968123
-3.9905021 9.3467159 1.0637262
-4.180469 9.5479956 1.235981
-3.9316449 9.3292141 0.99746293
-3.9258134 9.3461933 0.943416
-3.9400165 9.8477802 2.2612867
-4.0024238 9.856082 2.2578192
-4.0854807 9.8138275 2.0746062
-3.2432413 8.763628 0.36991537
-4.0016909 9.9375153 2.483017
-4.0418262 9.8581581 2.237859
-3.2043767 8.8361101 0.39410943
-4.0741806 9.7862949 2.0189171
-3.2411129 8.7708006 0.32640904
-4.094408 9.7041225 1.8122915
-3.2218983 8.6902113 0.26187855
-4.0461855 9.8634377 2.2009363
-3.2002764 8.8491745 0.34482431
-4.0601783 9.765729 1.9636389
-3.2388141 8.7798204 0.27965379
-4.1139541 9.700799 1.7776821
-3.2257571 8.6993389 0.21486098
-4.1757088 9.6338377 1.6104656
-3.2554553 8.6285973 0.15890661
-4.0690207 9.7783985 1.9282235
-3.2210183 8.7893934 0.22386867
-3.2197099 8.7065935 0.16402841
-3.2507968 8.6356306 0.10633814
-3.2827308 8.5619793 0.055999875
-3.2215242 8.7199383 0.10505156
-3.2525156 8.6441441 0.050773822
3.1519799 2.0009389 0.18813634
3.519371 1.9401369 0.6392718
0.54981291 5.8523617 0.29541236
0.57723236 5.8112049 0.2337414
0.5838517 5.803896 0.1631466
3.6885347 2.1388369 1.0895575
3.703238 2.1508822 0.92482537
-0.086911559 6.8003044 0.32106143
-0.09864831 6.8223372 0.27758002
4.0474787 2.8266912 2.4303305
4.0857782 2.8870535 2.2647662
4.1044254 2.9544487 2.0944777
4.1546063 3.0055814 1.9245943
4.2819662 3.2738476 2.3851631
-3.7487102 10.366677 2.2490435
-3.8035598 10.296597 2.0450454
-3.1184416 9.0213299 0.3006081
-3.7127025 10.429303 2.4155099
-3.7357705 10.315724 2.161046
-3.8435013 10.289168 1.9996527
-3.1174097 9.0286856 0.25622737
-3.7904651 10.132084 1.7444372
-3.1605062 8.9631805 0.18963757
-3.7436805 10.31259 2.1049984
-3.8642616 10.275504 1.9437157
-3.1199336 9.0395918 0.20906331
-3.8137016 10.121888 1.6946516
-3.1510508 8.96838 0.14108598
-3.9147892 10.079422 1.5501038
-3.1833646 8.8956385 0.077715822
-3.8640006 10.274892 1.8836832
-3.1148493 9.0555964 0.15688686
-3.8335068 10.117932 1.6430546
-3.1459527 8.9777288 0.089741319
-3.9180424 10.062391 1.4897835
-3.9807565 9.9858942 1.3343544
-3.836777 10.126065 1.5893501
-3.9199178 10.052237 1.4303682
-3.9894936 9.9799633 1.2775974
-3.8274939 9.7637606 1.0560207
-3.9177301 10.062582 1.3714362
-3.9910877 9.9768744 1.2182138
-3.8337014 9.7629499 1.0029236
-3.862905 9.666482 0.86866963
-3.7746699 9.8533592 1.0823671
-3.8348885 9.7654877 0.94768459
-3.8481755 9.6601934 0.80985993
-3.8183997 9.7748594 0.88433111
-3.9032845 9.6959705 0.76423818
-3.7415521 10.41268 2.3276923
-3.4091787 9.4392262 0.60594004
-3.6835411 10.423931 2.4565525
4.5109644 3.7104931 1.5113242
4.5493073 3.7741451 1.3383976
4.5726399 3.8124108 2.2896268
4.6082644 3.8859057 2.1233873
4.6388683 3.9560523 1.9592897
4.6844215 4.0310287 1.785486
4.7765908 4.1966271 2.4224763
4.8198934 4.2902536 2.2440803
3.3176622 3.3670053 0.061888121
0.42141902 6.5610261 0.2833223
0.43840945 6.5546136 0.23655581
3.2525954 3.8036489 0.19109039
3.6740584 3.7377582 0.58563155
4.2705112 3.2575178 0.46129984
4.3547444 3.3553219 1.3901726
4.4568324 3.5913105 1.8341135
4.4786072 3.6579857 1.6700418
-3.4140329 10.906825 2.4002326
-3.5091994 10.907352 2.3583307
-3.5554979 10.82677 2.1448109
-3.4930379 10.941205 2.4907739
-3.5424876 10.847792 2.2624066
-3.58564 10.768187 2.0554554
-3.6196082 10.674191 1.8521878
-3.5620935 10.813408 2.1753614
-3.6080227 10.716658 1.9659007
-3.6445994 10.62937 1.7730825
-3.6415367 10.499672 1.567143
-3.6181276 10.688391 1.8831381
-3.6679621 10.595098 1.6942145
-3.6444221 10.449319 1.4854313
-3.7316661 10.403701 1.3469027
-3.6744027 10.576852 1.6170343
-3.6937747 10.452489 1.4289603
-3.7417457 10.372276 1.273733
-2.9355962 9.5922575 0.80886132
-3.7036965 10.449773 1.3595068
-3.7518137 10.3509 1.2004313
-2.9062116 9.5487394 0.7499575
-2.858531 9.4318647 0.63735646
-2.9338329 9.6516857 0.82061082
-2.8844252 9.5185223 0.6954512
-2.85185 9.4149933 0.59193474
-3.2804348 9.6365528 0.59152085
-2.8680038 9.5079412 0.6448831
-2.8651721 9.4165335 0.55057615
-3.2991381 9.6407537 0.54031527
-3.0940943 9.594677 0.55006939
-3.7141073 9.9241495 0.54532015
-3.9438238 10.100532 0.50191438
-4.0498691 9.8909187 0.26452464
-4.1059036 9.7871933 0.15213497
-3.1811821 9.2834091 0.11000194
-4.0346522 9.91366 0.099152327
-3.1427665 9.2688103 0.05632031
4.7003322 4.0584364 1.1177821
4.7355475 4.1018167 0.98332465
4.8190322 4.2784796 1.5670664
4.8457088 4.3420496 1.4236408
4.8639469 4.4060764 1.2840354
4.9055724 4.4744816 1.1309052
4.9160857 4.5146594 2.0160892
4.9673243 4.5776944 1.8714868
4.9958382 4.6503992 1.726581
5.0416074 4.7309766 1.5685869
5.0577021 4.7290239 2.4891942
5.0952544 4.8186903 2.3331704
5.1348457 4.8994751 2.1829741
5.1854901 4.9914989 2.0178943
5.3282604 5.2641683 2.4826698
4.4426041 3.6363807 0.2268936
4.4820943 3.6404843 0.10263766
-3.1882696 11.36643 2.4322846
-3.2391515 11.229038 2.2970235
-3.3323083 11.243837 2.1457713
-3.2878122 11.246199 2.4270551
-3.331845 11.178668 2.2158453
-3.3031056 11.030759 1.9657952
-3.3555102 10.982767 1.7944999
-3.3206532 11.032261 2.0648456
-3.3683615 10.971967 1.8815664
-3.413455 10.922117 1.7132897
-3.5051043 10.919097 1.5769126
-3.408607 10.921555 1.7929441
-3.5041039 10.913321 1.6534015
-3.5369666 10.843042 1.4836853
-3.5730369 10.768603 1.3228234
-3.5270531 10.860969 1.5621159
-3.5693762 10.78311 1.3980594
-3.6067765 10.713711 1.2431821
-2.8851724 9.8690872 0.8044523
-3.5864882 10.742036 1.3108324
-3.0740762 10.089613 0.93110847
-2.8547845 9.7899199 0.73547715
-2.8407378 9.6999617 0.63088161
-2.8696971 9.8494167 0.78762609
-2.8518426 9.7477303 0.67686743
-2.8315248 9.6545353 0.57629871
-2.5403323 9.3299999 0.43276614
-2.8336768 9.7108927 0.61747879
-2.5306602 9.3568029 0.45960134
-2.8010528 9.5274267 0.43389881
-2.8125982 9.4638214 0.35680711
-2.5322473 9.3489676 0.41752386
-2.8167107 9.5190334 0.38646141
-2.821461 9.5168734 0.33698285
-3.3995035 9.6847296 0.10715857
4.8782201 4.4161968 0.70421666
4.9875865 4.6372585 1.1492497
5.0164995 4.6726885 1.0450265
4.9783053 4.7435694 0.93992764
5.1062284 4.8558111 1.6004157
5.1389551 4.9079647 1.4892823
5.2275414 5.0814419 2.0600529
5.2783027 5.1409836 1.943903
5.3989406 5.3942266 2.4068952
-3.3120449 11.029053 1.7239863
-3.34689 10.99292 1.5572901
-3.3717239 10.953551 1.3945061
-3.4023705 10.92549 1.4772922
-3.4855821 10.942177 1.3448855
-3.5078647 10.89292 1.1870764
-3.5406287 10.846446 1.0361518
-3.5251563 10.872591 1.2604886
-3.5550549 10.816532 1.1073411
-3.035243 10.167992 0.77791148
-2.7902784 9.8409719 0.59700912
-3.0464649 10.16719 0.83073682
-2.8067999 9.8446541 0.64256787
-2.7954037 9.7796698 0.54558307
-2.7926474 9.7182503 0.45448452
-2.814923 9.8027267 0.58876926
-2.8332434 9.7565565 0.49878258
-2.8038204 9.6723137 0.40594172
-3.0261662 11.638087 2.3822083
-2.6065421 9.4349613 0.30647695
-2.7971573 9.6834974 0.44004464
-3.1013842 11.508417 2.4704509
-2.8203082 9.641017 0.3580606
-3.1390474 11.508301 2.2806942
-3.1916282 11.516785 2.1012073
-3.1725078 11.365652 2.3446481
-2.5433428 9.363781 0.28623259
-3.2269545 11.369963 2.1654608
-3.2732077 11.373646 1.9918829
-3.3132031 9.8046579 0.055877239
-3.2871702 11.248786 2.054656
-3.3470922 11.250984 1.8887559
-3.0124602 11.790163 2.3852975
-3.1125317 11.566588 2.256505
-3.1732202 11.369146 2.3383889
-3.1947951 11.366882 2.1325727
-3.2891183 11.247141 2.0500886
-3.3252373 11.259209 1.8667457
-3.2788637 9.821022 0.081619747
-3.3201096 11.03089 1.7243068
-3.3368955 11.010357 1.5440526
-3.4132545 10.926785 1.4799832
-3.4829383 10.964744 1.3351628
-3.4977195 10.942097 1.1679666
-3.5260041 10.857018 1.2584729
-3.5499918 10.830458 1.0962689
-3.0279241 10.132078 0.82356858
-2.8011909 9.8473368 0.6359098
-2.783339 9.7958603 0.53033459
-2.7799473 9.7552376 0.43264192
-2.8218677 9.7936726 0.59080356
-2.8251991 9.7557182 0.49181837
-2.79565 9.6915932 0.39289159
-2.4730952 9.3492241 0.27868152
-2.7971342 9.6669483 0.44097477
-2.8182788 9.6437807 0.35378069
4.3215275 4.9057584 0.54056728
5.07939 4.7365303 1.0322878
4.9406161 4.7500143 0.97123265
4.8762369 4.7247682 0.92986065
4.8597765 4.6917768 0.88164008
5.1568642 4.9277892 1.4293476
5.1170688 4.901926 1.3787409
5.1255646 4.870554 1.3247302
-2.8190646 9.7454157 0.57383353
-2.8064148 9.710289 0.46344048
-2.8528013 9.7114058 0.65123892
-3.0403645 11.637487 2.4135458
-2.8284407 9.6618299 0.53908533
-2.8095174 9.623476 0.43272096
-2.8035316 9.5929508 0.33167678
-3.1972446 11.511168 2.3647385
-2.5327899 9.3304195 0.44170481
-3.2083893 11.52076 2.132365
-2.5682652 9.3367462 0.36623394
-3.2380333 11.237871 2.4307144
-3.2407765 11.233684 2.2020214
-3.2467155 11.240583 1.9911572
-2.8067727 9.4802399 0.36655316
-3.3094196 11.05922 2.100868
-3.3121772 11.048594 1.8891318
-3.3223333 9.7841053 0.068909191
-3.3105373 11.042419 1.6899996
-3.3880677 10.92026 1.8218234
-3.4027543 10.920757 1.6308711
-3.4200399 10.931354 1.4510645
-3.3754649 9.721673 0.10732339
-3.5287259 10.871569 1.6044214
-3.5406387 10.860765 1.4167297
-3.5407186 10.844125 1.2312552
-3.5497246 10.832331 1.0511509
-3.592768 10.746073 1.3568635
-3.615232 10.741417 1.1825836
-2.8258877 9.8780155 0.73078507
-2.7978914 9.8297682 0.60634249
-3.0896559 10.059125 0.90134412
-2.8479507 9.7923803 0.69206363
1.3731637 5.9972639 0.051461831
4.7989058 4.2582183 0.8697567
4.7479849 4.148787 0.83017194
4.6975832 4.0435481 0.79884285
4.8963304 4.479125 1.3200518
4.8472857 4.3838105 1.2719699
4.8178859 4.2816153 1.2366843
4.7741838 4.206903 1.1885858
5.0090108 4.6938982 1.7796488
4.974988 4.6052637 1.7244446
4.9262137 4.5287609 1.6766053
4.89082 4.4650898 1.62044
5.1451502 4.9036207 2.2545087
5.1022553 4.8330531 2.1891139
5.0706177 4.7610302 2.1333189
5.028192 4.7162113 2.0659647
-3.6534491 10.622804 1.5378362
-3.6560512 10.617736 1.3477333
-3.0964432 10.044082 0.9283818
-3.6492066 10.454402 1.4565128
-3.6688056 10.456855 1.2790401
-2.9243288 9.7540102 0.81763911
-2.8661618 9.6856165 0.67283756
-3.7483406 10.382814 1.2485676
-2.9308858 9.6556177 0.77739358
-2.8646827 9.5864601 0.64180315
-2.8306975 9.5412426 0.51969731
-2.9054379 9.5499487 0.7343539
-2.8642964 9.4992342 0.61010849
-2.8026576 9.4342823 0.49144363
-2.7997267 9.4129486 0.38592732
-2.8508291 9.4161911 0.57777154
-3.3474047 11.235581 2.4918256
-3.2588112 9.6999617 0.54817075
-3.3468904 11.235437 2.2462156
-3.8676133 10.123844 0.49369204
-3.394547 10.993414 2.3379283
-3.2887414 9.6441345 0.52229714
-3.3791065 10.983444 2.1081207
-3.3695605 10.968887 1.877863
-3.3961561 9.6580715 0.28005582
-3.5226552 10.900843 2.3014994
-3.4327502 9.6485128 0.14996231
-3.5251107 10.905518 2.0812459
-3.5170147 10.899306 1.8648891
-3.5150964 10.889793 1.6475679
-4.0093355 9.9282818 0.11587135
-3.5896585 10.760334 2.0064974
-3.5873783 10.751362 1.7922713
-3.7791915 9.7487383 0.2340205
-3.5872831 10.751461 1.5941668
-4.0587177 9.8662758 0.083330125
-3.5926416 10.745836 1.3925276
-3.6521888 10.629607 1.7354399
-3.1466525 9.2763367 0.09384273
0.94547486 6.1741543 0.14635912
3.2858734 3.8108912 0.077207461
0.4028039 6.528553 0.14047019
4.1981702 3.0653129 0.48137707
0.41194832 6.5715446 0.26631993
4.4536581 3.5912399 1.006395
4.5642834 3.8068366 1.4651227
4.4941216 3.6744089 1.4059368
4.4299183 3.5502014 1.3581923
4.6707911 4.0236969 1.9292809
4.6142406 3.8943391 1.860539
4.5534954 3.779665 1.80362
4.5026684 3.6765399 1.7390052
4.7927308 4.2297306 2.4083893
4.733089 4.1161103 2.3262777
4.6806965 4.0092187 2.262826
4.6343646 3.917007 2.1880286
-3.5684686 10.800596 2.3539846
-3.6620595 10.639768 2.4768016
-3.6530325 10.649942 2.2639499
-3.6461031 10.648764 2.0433059
-3.0675101 9.1366806 0.23398331
-3.6653442 10.436417 2.3278182
-3.6531315 10.439117 2.1139593
-3.6460171 10.443635 1.9171803
-3.0956032 9.0952835 0.2237912
-3.648809 10.446539 1.7198988
-3.1068344 9.0665607 0.11734135
-3.7382989 10.336884 2.0628693
-3.0937781 9.0757322 0.31002221
-3.7412896 10.344597 1.8680036
-3.1123357 9.0506544 0.20896068
-3.7392681 10.347427 1.679544
-3.1303749 9.0262671 0.10739517
-3.7469275 10.348927 1.4892142
-3.8628194 10.286291 1.8535578
-3.1360254 9.0201502 0.19441664
-3.8628588 10.284555 1.6587032
-3.1449552 8.9862261 0.093129054
-3.8634396 10.282237 1.4724141
-3.8684411 10.273876 1.2812321
-3.855015 10.135979 1.5783551
-3.1585293 8.9542227 0.077020988
-3.8592181 10.130524 1.3959434
-3.8708963 10.130259 1.2228683
-3.6784992 9.9707623 0.97622269
-3.9218707 10.050579 1.3648357
-3.918304 10.0321 1.182497
-3.7398338 9.8944149 0.95338142
-3.9006283 9.9089527 1.1272635
-3.7890635 9.8158073 0.92403013
-3.9965684 9.9252682 0.81280994
-3.3206241 9.4769135 0.52527082
-3.8320043 9.7491169 0.8996219
-4.0478544 9.84729 0.78617281
-4.0660782 9.7668352 0.7564382
-0.10620344 6.8149772 0.20561701
0.60003865 5.8551064 0.2064057
3.271759 2.215518 0.22454447
3.1934233 2.0557561 0.20078729
3.683342 2.1117373 0.67258233
3.5898538 1.9749517 0.63495171
4.0960307 2.8819933 1.6766515
4.0306392 2.7205124 1.6122676
4.1905556 3.1132302 2.1462452
4.123847 2.9681396 2.0652614
4.0525579 2.8389945 2.0014167
3.9943533 2.7105412 1.9281732
4.176579 3.0595045 2.4590368
4.1143637 2.9522138 2.3689992
-3.8168726 10.139698 2.3970394
-3.7918165 10.143047 2.1912749
-3.9031124 10.023476 2.3077817
-3.9035418 10.051811 2.1358435
-3.9142613 10.072901 1.9592576
-3.9999604 9.9339361 2.2580779
-4.0106478 9.9618101 2.0828896
-4.000875 9.9735346 1.9026451
-4.0034428 9.9803381 1.720817
-4.0656681 9.8562298 2.0185156
-4.0616174 9.8652058 1.8345692
-4.052269 9.8680162 1.6575438
-4.0549679 9.8663158 1.4797987
-4.0602398 9.730689 1.2368551
-4.0464611 9.7329655 1.7463243
-4.1583533 9.6846123 1.5629241
-4.0561714 9.740406 1.5758786
-4.1638699 9.6791773 1.3890659
-4.0561161 9.7392635 1.4096704
-4.1659708 9.6717491 1.221943
-3.8996363 9.5177689 0.96740419
-4.1018057 9.5499821 1.313573
-4.1115608 9.5389986 1.1495762
-3.9072859 9.4278851 0.93161577
-4.2096043 9.4955959 1.1420453
-3.1793318 8.9036989 0.36287379
-3.1991086 8.8633995 0.35280755
-3.2123799 8.831913 0.24836943
-3.1965194 8.8499041 0.438214
-3.2192373 8.824255 0.33999571
-3.2166185 8.7907591 0.23922941
-3.2421541 8.7561779 0.13578832
-3.2278879 8.7921953 0.32687515
-3.2474158 8.7590752 0.22765003
-3.213944 8.7101498 0.12953991
-3.2081633 8.7177639 0.21541736
-3.2291951 8.6793079 0.11923631
-3.2451353 8.6558561 0.10670431
2.9792051 0.78131914 0.75736523
2.6266873 1.0841317 0.7086885
3.309484 1.3818622 1.245905
3.2208686 1.211287 1.214551
3.1241107 1.0635848 1.1982473
3.0427589 0.89443827 1.1683848
2.7107146 1.3744907 0.27031422
2.919301 0.6583147 0.28278375
2.3883057 1.3008747 0.29412642
2.7218924 0.29655266 0.31195706
3.1648316 1.1326208 0.76506847
3.0720038 0.95164108 0.75281858
-4.1603117 9.6896553 2.3919616
-4.2368317 9.5285425 2.4515557
-4.1924276 9.5516405 2.2669289
-4.1193304 9.5474939 2.0565836
-4.2711329 9.4098835 2.3528042
-4.2130833 9.4225197 2.1500013
-4.2215424 9.4572601 2.0043743
-4.2324438 9.4801054 1.8478587
-4.3010745 9.3382368 2.1086738
-4.3225088 9.3704929 1.9582009
-4.3156023 9.388751 1.7978336
-4.299654 9.3887615 1.6257064
-4.3686261 9.2786713 1.9039576
-4.2989697 9.2666836 1.7031341
-4.2681608 9.2650061 1.5360384
-4.2787361 9.2647705 1.379957
-4.3779259 9.196578 1.6786393
-4.3798919 9.1977606 1.5154953
-4.3797655 9.1968565 1.3595805
-4.3808579 9.182436 1.1977646
-4.3791327 9.1121645 1.4644179
-4.3902535 9.1044521 1.3074423
-4.4744501 9.0510321 1.2964766
-3.780422 8.7450762 0.65880585
-3.2630124 8.6035185 0.46287906
-3.7940304 8.6943941 0.63884807
-3.2779787 8.5662918 0.45204049
-3.2901559 8.5313282 0.35583752
-3.3974528 8.5848455 0.55312926
-3.2946119 8.5318222 0.43929905
-3.3023973 8.4978161 0.34694263
-3.327369 8.4556656 0.25153956
-3.2999904 8.5058575 0.42796791
-3.3229747 8.4681463 0.33672926
-3.3280838 8.4259806 0.24387051
